//X Y Z C2M_signed_distances[<5] R G B
0.08121082 -0.02148883 -0.06946912 -0.003240 255 172 51
0.07969180 -0.02161635 -0.06981964 -0.003058 255 172 51
0.09028465 -0.01283649 -0.07123519 0.001640 255 172 51
0.08850496 -0.01248961 -0.07190854 0.002313 255 172 51
0.08800567 -0.01332778 -0.07178959 0.002292 255 172 51
0.08844416 -0.01434203 -0.07143902 0.001869 255 172 51
0.06413709 -0.02390043 -0.06878214 -0.003779 255 172 51
0.06346153 -0.02377907 -0.06854098 -0.003664 255 172 51
0.05999985 -0.02431235 -0.06895105 -0.003785 255 172 51
0.06294984 -0.02398368 -0.06874383 -0.003745 255 172 51
0.05905753 -0.02429838 -0.06892361 -0.003726 255 172 51
0.05712335 -0.02379369 -0.06865533 -0.003243 255 172 51
0.06869921 -0.02318678 -0.06886653 -0.003590 255 172 51
0.06630698 -0.02362681 -0.06901479 -0.003706 255 172 51
0.06476025 -0.02390141 -0.06890971 -0.003819 255 172 51
0.09443021 0.00562739 -0.06897374 -0.001138 255 172 51
0.09411231 0.00575727 -0.06806140 -0.001978 255 172 51
0.09235810 0.00608908 -0.06468867 -0.004558 255 172 51
0.09232195 0.00457080 -0.07204254 0.001722 255 172 51
0.08114148 0.05729471 -0.05262318 -0.000319 255 172 51
0.08176601 0.05145480 -0.05215035 0.000026 255 172 51
0.08097801 0.05969451 -0.05706710 -0.000679 255 172 51
0.08078505 0.06271458 -0.06465404 -0.000311 255 172 51
0.08099066 0.06119331 -0.06571418 0.000056 255 172 51
0.07136222 0.07229836 -0.06863695 0.000862 255 172 51
0.07578973 0.07204278 -0.06828453 0.000553 255 172 51
0.08011317 0.06419379 -0.06674381 -0.000204 255 172 51
0.07951248 0.06635763 -0.06721959 -0.000194 255 172 51
0.08069651 0.06182151 -0.06663697 0.000294 255 172 51
0.07812914 0.06974681 -0.06773147 0.000119 255 172 51
0.07916951 0.06795606 -0.06726803 -0.000236 255 172 51
0.10134505 0.03905418 -0.06385643 -0.000985 255 172 51
0.10016927 0.03911185 -0.06494226 -0.000967 255 172 51
0.09979963 0.00723702 -0.06657205 -0.002510 255 172 51
0.09695055 0.00652964 -0.06661612 -0.002832 255 172 51
0.10333198 0.00758099 -0.06717686 -0.001918 255 172 51
0.10085747 0.00743532 -0.06673672 -0.002300 255 172 51
0.10448907 0.00826370 -0.06628069 -0.002369 255 172 51
0.10796291 0.03621600 -0.06751884 0.000438 255 172 51
0.10573806 0.03692089 -0.06743962 0.000461 255 172 51
0.10919871 0.03549318 -0.06751484 0.000478 255 172 51
0.11412153 0.02542779 -0.06774134 0.000878 255 172 51
0.11388095 0.02687443 -0.06771009 0.000802 255 172 51
0.11234828 0.03351587 -0.06746441 0.000448 255 172 51
0.11430126 0.02862491 -0.06763755 0.000687 255 172 51
0.11500378 0.01930151 -0.06775364 0.001077 255 172 51
0.11192862 0.01478305 -0.06776504 0.001048 255 172 51
0.10935365 0.01373413 -0.06777418 0.000956 255 172 51
0.10807619 0.01065104 -0.06689216 -0.000695 255 172 51
0.09992510 0.03901649 -0.06583964 -0.000845 255 172 51
0.10190217 0.03879914 -0.06534289 -0.000705 255 172 51
0.10555740 0.03758955 -0.06684358 0.000041 255 172 51
0.10493687 0.03817469 -0.06601654 -0.000461 255 172 51
0.10046410 0.00078302 -0.07175219 0.001312 255 172 51
0.09683515 0.00328915 -0.07201433 0.001770 255 172 51
0.09682614 -0.01074630 -0.07105991 0.001006 255 172 51
0.09298059 0.00440938 -0.07206438 0.001758 255 172 51
0.09479451 0.00422142 -0.07202978 0.001761 255 172 51
0.08807348 -0.01754006 -0.07099153 -0.000149 255 172 51
0.08883284 -0.01670234 -0.07098468 0.000429 255 172 51
0.08564087 -0.02001185 -0.07077552 -0.002162 255 172 51
0.08334412 -0.02078731 -0.06991365 -0.002772 255 172 51
0.08174551 -0.02134704 -0.06944970 -0.003184 255 172 51
0.08169283 -0.02146794 -0.06963736 -0.003242 255 172 51
0.09260271 -0.01352718 -0.07053189 0.001024 255 172 51
0.08970339 -0.01525868 -0.07097328 0.001146 255 172 51
0.06052532 -0.02436812 -0.06898835 -0.003859 255 172 51
0.06218902 -0.02411455 -0.06885114 -0.003767 255 172 51
0.05804623 -0.02451539 -0.06905485 -0.003883 255 172 51
0.05711487 -0.02434552 -0.06892995 -0.003704 255 172 51
0.06852710 -0.02335354 -0.06908641 -0.003662 255 172 51
0.06567220 -0.02381405 -0.06908151 -0.003798 255 172 51
0.06476459 -0.02397251 -0.06903698 -0.003857 255 172 51
0.09444530 0.00502493 -0.07135896 0.001153 255 172 51
0.09579709 0.00549150 -0.06990849 -0.000226 255 172 51
0.09379582 0.00465125 -0.07182375 0.001569 255 172 51
0.09523022 0.00581674 -0.06835164 -0.001670 255 172 51
0.08092402 0.05962671 -0.05511927 -0.000606 255 172 51
0.08127277 0.05541603 -0.05032147 -0.000171 255 172 51
0.08148967 0.05325469 -0.05008952 0.000068 255 172 51
0.08069640 0.06159665 -0.05677351 -0.000853 255 172 51
0.08068725 0.06299980 -0.06101801 -0.000656 255 172 51
0.08066251 0.06359084 -0.06290954 -0.000573 255 172 51
0.06926344 0.07280356 -0.06874964 0.000950 255 172 51
0.07367563 0.07347619 -0.06859809 0.000869 255 172 51
0.08033089 0.06342804 -0.06663213 -0.000024 255 172 51
0.08014689 0.06490040 -0.06646249 -0.000431 255 172 51
0.07940959 0.06715113 -0.06724312 -0.000200 255 172 51
0.07990690 0.06576933 -0.06679817 -0.000400 255 172 51
0.08064348 0.06262578 -0.06613364 0.000017 255 172 51
0.07793027 0.07095467 -0.06785321 0.000248 255 172 51
0.07740703 0.07173306 -0.06800231 0.000354 255 172 51
0.07901053 0.06917804 -0.06725274 -0.000208 255 172 51
0.10306914 0.03881069 -0.06405295 -0.000940 255 172 51
0.09931852 0.00669405 -0.06737795 -0.002092 255 172 51
0.09813999 0.00653652 -0.06724714 -0.002298 255 172 51
0.10415213 0.00784081 -0.06676149 -0.002163 255 172 51
0.10260051 0.00692360 -0.06802919 -0.001426 255 172 51
0.10086012 0.00687849 -0.06761404 -0.001789 255 172 51
0.10544686 0.00841305 -0.06598827 -0.002567 255 172 51
0.10756266 0.03678978 -0.06737323 0.000349 255 172 51
0.11073694 0.03449878 -0.06750672 0.000477 255 172 51
0.11599658 0.02500924 -0.06771849 0.000886 255 172 51
0.11586322 0.02173315 -0.06775357 0.001009 255 172 51
0.11541387 0.03282543 -0.06737113 0.000400 255 172 51
0.11555353 0.02994168 -0.06754734 0.000589 255 172 51
0.10890110 0.01305147 -0.06768920 0.000796 255 172 51
0.11565480 0.01769052 -0.06773797 0.001106 255 172 51
0.11073118 0.01351746 -0.06776259 0.000914 255 172 51
0.11385302 0.01462934 -0.06772210 0.001006 255 172 51
0.10816508 0.00895122 -0.06654713 -0.001818 255 172 51
0.11010493 0.01144706 -0.06736752 0.000002 255 172 51
0.10353205 0.03855362 -0.06551345 -0.000554 255 172 51
0.10070214 -0.00625546 -0.07175384 -0.000258 255 172 51
0.10044105 0.00274434 -0.07181051 0.001539 255 172 51
0.10310090 0.00130699 -0.07173102 0.001332 255 172 51
0.09595886 0.00408299 -0.07199232 0.001749 255 172 51
0.09829686 0.00357926 -0.07182802 0.001597 255 172 51
0.09937187 -0.00884535 -0.07172431 0.000816 255 172 51
0.09495540 -0.01350133 -0.07041776 0.000919 255 172 51
0.08927622 -0.01818477 -0.07103375 -0.000792 255 172 51
0.08710344 -0.01937280 -0.07111360 -0.001642 255 172 51
0.08631106 -0.01990808 -0.07105161 -0.002076 255 172 51
0.08304305 -0.02099834 -0.06990856 -0.002929 255 172 51
0.08207113 -0.02137315 -0.06975862 -0.003178 255 172 51
0.09163855 -0.01520023 -0.07042395 0.000719 255 172 51
0.08896054 -0.01365031 -0.07150711 0.001936 255 172 51
0.05921446 -0.02454973 -0.06909058 -0.003945 255 172 51
0.05992353 -0.02452703 -0.06908600 -0.003962 255 172 51
0.06382988 -0.02406617 -0.06896131 -0.003863 255 172 51
0.09547085 0.00511247 -0.07104348 0.000868 255 172 51
0.09619775 0.00614945 -0.06746784 -0.002336 255 172 51
0.08082800 0.06019367 -0.05262432 -0.000616 255 172 51
0.08108491 0.05753012 -0.04781149 -0.000436 255 172 51
0.08034822 0.06436720 -0.05887879 -0.000854 255 172 51
0.08031830 0.06567716 -0.06470748 -0.000716 255 172 51
0.07134682 0.07489979 -0.06882892 0.001117 255 172 51
0.07625770 0.07475924 -0.06836902 0.000767 255 172 51
0.08045627 0.06377468 -0.06606910 -0.000249 255 172 51
0.07970992 0.06693063 -0.06705537 -0.000201 255 172 51
0.07991108 0.06656121 -0.06672399 -0.000413 255 172 51
0.07857545 0.07076649 -0.06759284 0.000114 255 172 51
0.07767663 0.07312703 -0.06794701 0.000386 255 172 51
0.07972212 0.06744581 -0.06677696 -0.000420 255 172 51
0.07950461 0.06839014 -0.06680714 -0.000443 255 172 51
0.07881276 0.07012767 -0.06743693 0.000034 255 172 51
0.09749781 0.00631091 -0.06761675 -0.002112 255 172 51
0.10463293 0.00716503 -0.06775539 -0.001650 255 172 51
0.10612828 0.00859408 -0.06578796 -0.002646 255 172 51
0.10514063 0.00779505 -0.06649689 -0.002429 255 172 51
0.10692561 0.03723038 -0.06703444 0.000084 255 172 51
0.10815932 0.03673824 -0.06735681 0.000320 255 172 51
0.10903628 0.03663277 -0.06722128 0.000196 255 172 51
0.11050010 0.03559875 -0.06741411 0.000445 255 172 51
0.11484803 0.02626855 -0.06772619 0.000847 255 172 51
0.11539354 0.02730437 -0.06767666 0.000774 255 172 51
0.11178076 0.03451657 -0.06743812 0.000448 255 172 51
0.11374433 0.03447480 -0.06727333 0.000346 255 172 51
0.11572081 0.02853814 -0.06761643 0.000689 255 172 51
0.10965658 0.01270895 -0.06765264 0.000671 255 172 51
0.11708227 0.01915563 -0.06776190 0.001099 255 172 51
0.11562468 0.01596948 -0.06771121 0.001098 255 172 51
0.11226423 0.01332103 -0.06773213 0.000796 255 172 51
0.10958259 0.00999631 -0.06689857 -0.001034 255 172 51
0.10674646 0.00871188 -0.06593135 -0.002462 255 172 51
0.10683496 0.03789984 -0.06593205 -0.000751 255 172 51
0.10248804 -0.00492424 -0.07154703 -0.000324 255 172 51
0.10527915 -0.00106704 -0.07145864 0.000910 255 172 51
0.09705962 0.00410068 -0.07187874 0.001661 255 172 51
0.09919439 -0.01134107 -0.07143465 0.001329 255 172 51
0.09807707 -0.01401673 -0.07067192 0.000987 255 172 51
0.09459460 0.00473635 -0.07183333 0.001604 255 172 51
0.09528847 0.00471364 -0.07174385 0.001528 255 172 51
0.09027275 -0.01720407 -0.07073466 -0.000191 255 172 51
0.08887365 -0.01896697 -0.07126021 -0.001425 255 172 51
0.08789806 -0.01920626 -0.07123075 -0.001544 255 172 51
0.08686897 -0.01967001 -0.07114920 -0.001889 255 172 51
0.09366162 -0.01583761 -0.06993773 0.000069 255 172 51
0.06476326 -0.02403488 -0.06913997 -0.003892 255 172 51
0.09664651 0.00508633 -0.07098307 0.000827 255 172 51
0.09712138 0.00585579 -0.06901457 -0.001017 255 172 51
0.08054110 0.06221560 -0.05412006 -0.000913 255 172 51
0.08082591 0.06036342 -0.04944849 -0.000580 255 172 51
0.08126506 0.05518863 -0.04791591 -0.000166 255 172 51
0.08035798 0.06355058 -0.05625616 -0.001003 255 172 51
0.08030933 0.06561267 -0.06220218 -0.000750 255 172 51
0.08042636 0.06460994 -0.06561153 -0.000502 255 172 51
0.07392412 0.07542847 -0.06869598 0.001043 255 172 51
0.08018038 0.06577026 -0.06609397 -0.000655 255 172 51
0.07845202 0.07185755 -0.06757332 0.000116 255 172 51
0.07948823 0.06908527 -0.06659447 -0.000451 255 172 51
0.07921121 0.07009539 -0.06692675 -0.000282 255 172 51
0.10003483 0.00646407 -0.06821933 -0.001434 255 172 51
0.09871601 0.00622747 -0.06841461 -0.001395 255 172 51
0.10348788 0.00643009 -0.06924448 -0.000463 255 172 51
0.10103040 0.00614818 -0.06930351 -0.000468 255 172 51
0.10610220 0.00815302 -0.06573596 -0.002910 255 172 51
0.10589135 0.00790067 -0.06605797 -0.002757 255 172 51
0.10811527 0.03708920 -0.06707665 0.000091 255 172 51
0.11006448 0.03631209 -0.06724152 0.000289 255 172 51
0.11117767 0.03540347 -0.06738614 0.000430 255 172 51
0.11739601 0.02314381 -0.06773665 0.000969 255 172 51
0.11219388 0.03525805 -0.06724012 0.000310 255 172 51
0.11740078 0.03059116 -0.06747106 0.000544 255 172 51
0.11488543 0.03466855 -0.06716283 0.000315 255 172 51
0.11751556 0.02789416 -0.06759854 0.000721 255 172 51
0.11850074 0.02125969 -0.06776232 0.001058 255 172 51
0.11744126 0.01693448 -0.06773653 0.001120 255 172 51
0.11135011 0.01277941 -0.06772700 0.000694 255 172 51
0.11626188 0.01417615 -0.06771267 0.000922 255 172 51
0.11399642 0.01248106 -0.06769288 0.000457 255 172 51
0.11071359 0.01244340 -0.06765918 0.000573 255 172 51
0.10947573 0.00931596 -0.06673793 -0.001498 255 172 51
0.10706761 0.00830694 -0.06599017 -0.002614 255 172 51
0.11137567 0.01031099 -0.06730548 -0.000645 255 172 51
0.10584227 0.03826438 -0.06531242 -0.000925 255 172 51
0.10213627 -0.00604375 -0.07180485 -0.000535 255 172 51
0.10360286 -0.00388245 -0.07126710 -0.000038 255 172 51
0.10116725 -0.00805354 -0.07223576 0.000548 255 172 51
0.09981245 0.00443786 -0.07150768 0.001382 255 172 51
0.10273211 0.00338494 -0.07183202 0.001640 255 172 51
0.10522442 -0.00314202 -0.07120603 0.000391 255 172 51
0.10743754 0.00215743 -0.07170789 0.001573 255 172 51
0.09639791 0.00467089 -0.07161586 0.001419 255 172 51
0.09791258 0.00461093 -0.07145263 0.001296 255 172 51
0.10036011 -0.00996653 -0.07205969 0.001370 255 172 51
0.09604491 -0.01653475 -0.06987167 -0.000526 255 172 51
0.09119255 -0.01652458 -0.07041601 0.000075 255 172 51
0.08967595 -0.01886545 -0.07122455 -0.001439 255 172 51
0.09252344 -0.01682540 -0.06999330 -0.000485 255 172 51
0.09755736 0.00534113 -0.07044608 0.000352 255 172 51
0.09739922 0.00614343 -0.06818985 -0.001697 255 172 51
0.08060459 0.06193721 -0.05140129 -0.000742 255 172 51
0.08115636 0.05634047 -0.04681256 -0.000324 255 172 51
0.08085186 0.06036740 -0.04581663 -0.000466 255 172 51
0.08146021 0.05327439 -0.04764336 0.000251 255 172 51
0.08014062 0.06494518 -0.05681259 -0.001004 255 172 51
0.07975280 0.06886679 -0.06150989 -0.000864 255 172 51
0.07993560 0.06805591 -0.06418948 -0.000806 255 172 51
0.07284570 0.07638627 -0.06877286 0.001145 255 172 51
0.07809933 0.07452305 -0.06786426 0.000465 255 172 51
0.07527969 0.07626656 -0.06854862 0.000967 255 172 51
0.08005226 0.06674596 -0.06607249 -0.000682 255 172 51
0.07896819 0.07100680 -0.06719632 -0.000088 255 172 51
0.07893541 0.07055677 -0.06735683 0.000043 255 172 51
0.07866497 0.07292783 -0.06743918 0.000080 255 172 51
0.07985342 0.06792097 -0.06589174 -0.000697 255 172 51
0.10624859 0.00755507 -0.06685729 -0.002234 255 172 51
0.10548797 0.00648736 -0.06949807 -0.000211 255 172 51
0.10652018 0.00827209 -0.06571515 -0.002869 255 172 51
0.10788769 0.03750604 -0.06657537 -0.000311 255 172 51
0.10969335 0.03664811 -0.06717593 0.000217 255 172 51
0.11112174 0.03599115 -0.06720985 0.000290 255 172 51
0.11930861 0.02430962 -0.06769069 0.000922 255 172 51
0.11904059 0.03234544 -0.06731339 0.000417 255 172 51
0.11398637 0.03562149 -0.06693606 0.000130 255 172 51
0.11594759 0.03448448 -0.06713930 0.000286 255 172 51
0.11977088 0.01816949 -0.06780989 0.001172 255 172 51
0.11726608 0.01541326 -0.06770151 0.001053 255 172 51
0.11176577 0.01210117 -0.06761635 0.000353 255 172 51
0.11026630 0.00953587 -0.06694067 -0.001263 255 172 51
0.10987243 0.00895348 -0.06695884 -0.001507 255 172 51
0.10733891 0.00798655 -0.06654316 -0.002296 255 172 51
0.11144578 0.01125327 -0.06745925 -0.000108 255 172 51
0.10654700 0.03830898 -0.06412809 -0.001256 255 172 51
0.10331117 -0.00612836 -0.07182717 0.000044 255 172 51
0.10206714 -0.00694960 -0.07210366 -0.000222 255 172 51
0.10423446 -0.00492534 -0.07134829 0.000022 255 172 51
0.10059322 -0.00901099 -0.07220969 0.001112 255 172 51
0.09865855 0.00424608 -0.07168887 0.001507 255 172 51
0.10142900 0.00400374 -0.07175682 0.001616 255 172 51
0.10467222 0.00308085 -0.07183500 0.001666 255 172 51
0.10979363 -0.00350665 -0.07121778 0.001130 255 172 51
0.09977537 -0.01292832 -0.07131420 0.001444 255 172 51
0.10079713 -0.01150561 -0.07198001 0.001772 255 172 51
0.09840943 -0.01678657 -0.07027391 -0.000793 255 172 51
0.09075830 -0.01842295 -0.07086214 -0.001208 255 172 51
0.09188701 -0.01780159 -0.07032217 -0.001000 255 172 51
0.08887050 -0.01919082 -0.07135203 -0.001634 255 172 51
0.08982666 -0.01914048 -0.07134197 -0.001727 255 172 51
0.09002330 -0.01867134 -0.07109495 -0.001313 255 172 51
0.09448265 -0.01753217 -0.06960140 -0.001367 255 172 51
0.09349246 -0.01713002 -0.06970369 -0.000935 255 172 51
0.09892665 0.00569510 -0.06987909 -0.000119 255 172 51
0.08020364 0.06438790 -0.05170492 -0.000816 255 172 51
0.08047764 0.06316848 -0.04896285 -0.000495 255 172 51
0.08120353 0.05564222 -0.04605781 -0.000234 255 172 51
0.08115040 0.05667354 -0.04537479 -0.000348 255 172 51
0.08105489 0.05835019 -0.04385067 -0.000368 255 172 51
0.08064111 0.06242075 -0.04668085 -0.000388 255 172 51
0.08131826 0.05451313 -0.04641784 -0.000010 255 172 51
0.08006728 0.06506925 -0.05482765 -0.001051 255 172 51
0.07983468 0.06703622 -0.05742168 -0.000949 255 172 51
0.07406420 0.07647561 -0.06865656 0.001058 255 172 51
0.07851879 0.07370030 -0.06763207 0.000257 255 172 51
0.07772128 0.07548020 -0.06806134 0.000660 255 172 51
0.07639313 0.07613351 -0.06842930 0.000917 255 172 51
0.07903835 0.07162298 -0.06693896 -0.000277 255 172 51
0.07894678 0.07227581 -0.06706156 -0.000201 255 172 51
0.07960941 0.06945653 -0.06584502 -0.000707 255 172 51
0.10646172 0.00702461 -0.06832216 -0.001133 255 172 51
0.10420249 0.00609825 -0.07017642 0.000389 255 172 51
0.10279429 0.00580049 -0.07044580 0.000596 255 172 51
0.10653298 0.00795322 -0.06598811 -0.002793 255 172 51
0.10912098 0.03728521 -0.06655721 -0.000377 255 172 51
0.10994560 0.03682885 -0.06692732 -0.000005 255 172 51
0.11079077 0.03659677 -0.06691421 0.000010 255 172 51
0.11950587 0.02977777 -0.06747830 0.000624 255 172 51
0.11717752 0.03389132 -0.06717870 0.000283 255 172 51
0.11291711 0.03618093 -0.06676418 -0.000025 255 172 51
0.11553127 0.03545832 -0.06687835 0.000139 255 172 51
0.12155239 0.02100168 -0.06777792 0.001107 255 172 51
0.11877811 0.01560509 -0.06776054 0.001122 255 172 51
0.11643881 0.01246650 -0.06780407 0.000465 255 172 51
0.11775978 0.01471863 -0.06771484 0.001023 255 172 51
0.11246754 0.01130721 -0.06754871 -0.000075 255 172 51
0.10935215 0.00830147 -0.06724617 -0.001566 255 172 51
0.10828143 0.00804724 -0.06701682 -0.001859 255 172 51
0.11097752 0.00930998 -0.06721875 -0.001175 255 172 51
0.10836220 0.03772263 -0.06597554 -0.000796 255 172 51
0.10832204 0.03797518 -0.06488539 -0.001277 255 172 51
0.10511655 -0.00413489 -0.07112058 0.000155 255 172 51
0.10209861 -0.00780732 -0.07241771 0.000487 255 172 51
0.10122801 -0.00897891 -0.07246292 0.001217 255 172 51
0.10167760 0.00478515 -0.07151480 0.001495 255 172 51
0.10265171 0.00439299 -0.07171420 0.001639 255 172 51
0.10429780 0.00433767 -0.07172461 0.001653 255 172 51
0.10666834 -0.00407637 -0.07110309 0.000516 255 172 51
0.11126840 0.00121683 -0.07146193 0.001490 255 172 51
0.10586526 0.00378032 -0.07183562 0.001763 255 172 51
0.09990177 -0.01429110 -0.07104787 0.001144 255 172 51
0.10088064 -0.00941028 -0.07236354 0.001349 255 172 51
0.10138495 -0.00985581 -0.07248583 0.001609 255 172 51
0.09952366 -0.01550951 -0.07069506 0.000226 255 172 51
0.09720264 -0.01781896 -0.06990276 -0.001694 255 172 51
0.09036125 -0.01894980 -0.07118618 -0.001625 255 172 51
0.09544103 -0.01778268 -0.06954915 -0.001672 255 172 51
0.09334852 -0.01793811 -0.06984708 -0.001478 255 172 51
0.09887931 0.00512036 -0.07088848 0.000824 255 172 51
0.08078995 0.06092660 -0.04292562 -0.000390 255 172 51
0.08063647 0.06251928 -0.04444026 -0.000389 255 172 51
0.08146916 0.05331604 -0.04533950 0.000410 255 172 51
0.07958421 0.07024164 -0.06478267 -0.000830 255 172 51
0.07921405 0.07103139 -0.05802622 -0.001048 255 172 51
0.07360149 0.07695652 -0.06857774 0.001009 255 172 51
0.07879981 0.07422743 -0.06741528 0.000210 255 172 51
0.07718015 0.07595484 -0.06826891 0.000832 255 172 51
0.07836230 0.07530742 -0.06771496 0.000452 255 172 51
0.07467721 0.07712273 -0.06833136 0.000800 255 172 51
0.07606852 0.07677993 -0.06840403 0.000947 255 172 51
0.07932419 0.07079318 -0.06637176 -0.000547 255 172 51
0.07905862 0.07282665 -0.06684867 -0.000308 255 172 51
0.07894820 0.07354013 -0.06713142 -0.000082 255 172 51
0.10770321 0.00748282 -0.06762651 -0.001554 255 172 51
0.10671206 0.00671669 -0.06922938 -0.000372 255 172 51
0.10504982 0.00596411 -0.07053754 0.000727 255 172 51
0.10140847 0.00557873 -0.07061867 0.000704 255 172 51
0.11180934 0.03640195 -0.06678446 -0.000051 255 172 51
0.12114087 0.02745679 -0.06755706 0.000754 255 172 51
0.11878887 0.03429922 -0.06697778 0.000156 255 172 51
0.12245217 0.03074416 -0.06738883 0.000584 255 172 51
0.11376373 0.03642577 -0.06648873 -0.000184 255 172 51
0.11501870 0.03633300 -0.06638016 -0.000183 255 172 51
0.11699925 0.03506269 -0.06688958 0.000132 255 172 51
0.12172340 0.01879066 -0.06785732 0.001217 255 172 51
0.12065680 0.01576690 -0.06786732 0.001233 255 172 51
0.11835734 0.01391154 -0.06780310 0.001005 255 172 51
0.11504368 0.01156819 -0.06776340 0.000103 255 172 51
0.11368410 0.01056612 -0.06771263 -0.000324 255 172 51
0.11095811 0.00857889 -0.06764373 -0.001146 255 172 51
0.11235674 0.00939919 -0.06763023 -0.000862 255 172 51
0.10874697 0.03812135 -0.06262100 -0.001302 255 172 51
0.10494053 -0.00584227 -0.07158243 0.000445 255 172 51
0.10303611 -0.00757473 -0.07238591 0.000690 255 172 51
0.10578726 -0.00488210 -0.07120872 0.000365 255 172 51
0.10216467 -0.00878066 -0.07267766 0.001317 255 172 51
0.10100971 0.00513279 -0.07116792 0.001176 255 172 51
0.10736234 -0.00498399 -0.07122781 0.000739 255 172 51
0.11533198 -0.00013283 -0.07113551 0.001378 255 172 51
0.11051430 0.00357319 -0.07165072 0.001712 255 172 51
0.10702772 0.00420865 -0.07178121 0.001773 255 172 51
0.10094180 -0.01334521 -0.07161715 0.001706 255 172 51
0.10224961 -0.01086517 -0.07259572 0.002138 255 172 51
0.10000063 -0.01666519 -0.07066686 -0.000674 255 172 51
0.09610379 -0.01823080 -0.06968392 -0.002038 255 172 51
0.09825098 -0.01833956 -0.07020773 -0.002117 255 172 51
0.09222950 -0.01872142 -0.07058847 -0.001718 255 172 51
0.09061920 -0.01914909 -0.07126694 -0.001855 255 172 51
0.09510161 -0.01842558 -0.06958074 -0.002191 255 172 51
0.10017714 0.00537433 -0.07065417 0.000664 255 172 51
0.07988179 0.06605169 -0.05310789 -0.000954 255 172 51
0.08003329 0.06599391 -0.04816503 -0.000332 255 172 51
0.08039221 0.06432092 -0.04646065 -0.000272 255 172 51
0.08128326 0.05491441 -0.04510613 -0.000044 255 172 51
0.08121148 0.05577810 -0.04473218 -0.000204 255 172 51
0.08130464 0.05597220 -0.04305352 -0.000045 255 172 51
0.08099207 0.05933399 -0.04089331 -0.000154 255 172 51
0.08051661 0.06370544 -0.04527414 -0.000286 255 172 51
0.08159694 0.05140893 -0.04695228 0.000930 255 172 51
0.07955379 0.06808949 -0.05448589 -0.000984 255 172 51
0.07941501 0.07179105 -0.06422356 -0.000862 255 172 51
0.07928246 0.07226261 -0.06194287 -0.000949 255 172 51
0.07872898 0.07482734 -0.06737174 0.000175 255 172 51
0.07774463 0.07602021 -0.06807199 0.000733 255 172 51
0.07816319 0.07610105 -0.06759437 0.000341 255 172 51
0.07545563 0.07689478 -0.06844565 0.000942 255 172 51
0.07692503 0.07671182 -0.06817546 0.000795 255 172 51
0.07926774 0.07189788 -0.06612641 -0.000681 255 172 51
0.10791608 0.00688666 -0.06915321 -0.000366 255 172 51
0.10692413 0.00646798 -0.06986102 0.000162 255 172 51
0.10408749 0.00571315 -0.07082279 0.000967 255 172 51
0.10629229 0.00599845 -0.07058880 0.000752 255 172 51
0.10202077 0.00532481 -0.07109771 0.001165 255 172 51
0.10955544 0.03765342 -0.06558282 -0.001057 255 172 51
0.11089292 0.03713494 -0.06617638 -0.000601 255 172 51
0.12316702 0.02440657 -0.06764399 0.000932 255 172 51
0.12019221 0.03351577 -0.06715989 0.000352 255 172 51
0.12171537 0.03290677 -0.06722640 0.000455 255 172 51
0.11282197 0.03684285 -0.06609546 -0.000571 255 172 51
0.11658981 0.03606563 -0.06644443 -0.000024 255 172 51
0.12348388 0.01903604 -0.06786256 0.001236 255 172 51
0.12214609 0.01728365 -0.06790464 0.001295 255 172 51
0.11962099 0.01476472 -0.06782275 0.001157 255 172 51
0.11869834 0.01196828 -0.06805596 0.000478 255 172 51
0.11597931 0.01087408 -0.06794826 -0.000064 255 172 51
0.10882826 0.00776283 -0.06762270 -0.001450 255 172 51
0.10997798 0.00777128 -0.06821491 -0.000948 255 172 51
0.10977788 0.03785589 -0.06443749 -0.001305 255 172 51
0.10424657 -0.00683730 -0.07204103 0.000739 255 172 51
0.10323110 0.00515152 -0.07131010 0.001356 255 172 51
0.10586479 0.00468017 -0.07168972 0.001686 255 172 51
0.10843076 -0.00599512 -0.07134759 0.001091 255 172 51
0.11647570 -0.00627428 -0.07083564 0.001534 255 172 51
0.11318208 0.00372027 -0.07139777 0.001505 255 172 51
0.10895233 0.00424710 -0.07172015 0.001784 255 172 51
0.10788417 0.00395235 -0.07181814 0.001824 255 172 51
0.10175326 -0.01229555 -0.07216756 0.002115 255 172 51
0.10122600 -0.01535562 -0.07123317 0.000450 255 172 51
0.10211340 -0.00972812 -0.07275646 0.001812 255 172 51
0.09968150 -0.01789008 -0.07055848 -0.001738 255 172 51
0.09713823 -0.01864416 -0.06995839 -0.002364 255 172 51
0.09117800 -0.01894243 -0.07102557 -0.001723 255 172 51
0.09285499 -0.01841240 -0.07018193 -0.001678 255 172 51
0.09024197 -0.01926734 -0.07141124 -0.001921 255 172 51
0.09429563 -0.01838489 -0.06968373 -0.002028 255 172 51
0.07971834 0.06718948 -0.05138201 -0.000738 255 172 51
0.08122358 0.05743567 -0.04137111 -0.000044 255 172 51
0.08052030 0.06310859 -0.04243575 -0.000448 255 172 51
0.08066572 0.06175057 -0.04057197 -0.000354 255 172 51
0.08042164 0.06422851 -0.04401030 -0.000332 255 172 51
0.08153714 0.05166258 -0.04481046 0.001111 255 172 51
0.08138850 0.05458385 -0.04396445 0.000184 255 172 51
0.07903939 0.07091391 -0.05443202 -0.001213 255 172 51
0.07896823 0.07451190 -0.06709949 0.000013 255 172 51
0.07904921 0.07409725 -0.06690072 -0.000180 255 172 51
0.07759054 0.07638502 -0.06802391 0.000701 255 172 51
0.07865335 0.07542215 -0.06724828 0.000082 255 172 51
0.07572643 0.07724166 -0.06821131 0.000787 255 172 51
0.07640480 0.07716364 -0.06816940 0.000801 255 172 51
0.07918830 0.07328153 -0.06607716 -0.000701 255 172 51
0.10879570 0.00738928 -0.06834535 -0.000955 255 172 51
0.10511715 0.00536495 -0.07123898 0.001312 255 172 51
0.12503210 0.02149917 -0.06773665 0.001103 255 172 51
0.12487622 0.02789015 -0.06749004 0.000771 255 172 51
0.12030999 0.03425744 -0.06695726 0.000188 255 172 51
0.11824933 0.03568371 -0.06640393 -0.000128 255 172 51
0.12433186 0.03303524 -0.06717822 0.000556 255 172 51
0.11413279 0.03678549 -0.06597934 -0.000502 255 172 51
0.11617415 0.03660283 -0.06588492 -0.000336 255 172 51
0.12038258 0.01401893 -0.06793322 0.001130 255 172 51
0.12294649 0.01513231 -0.06799358 0.001302 255 172 51
0.11148822 0.00797269 -0.06851558 -0.000660 255 172 51
0.11350938 0.00956916 -0.06782997 -0.000679 255 172 51
0.11263127 0.00863502 -0.06820066 -0.000741 255 172 51
0.11146451 0.03769109 -0.06354722 -0.001272 255 172 51
0.10621023 -0.00568308 -0.07142201 0.000659 255 172 51
0.10568430 -0.00688506 -0.07187723 0.001018 255 172 51
0.10429183 -0.00792566 -0.07239955 0.001263 255 172 51
0.10319447 -0.00878435 -0.07278043 0.001660 255 172 51
0.11016870 -0.00750675 -0.07128587 0.001392 255 172 51
0.10709541 -0.00615140 -0.07148875 0.000944 255 172 51
0.12182397 -0.00348584 -0.07069354 0.001502 255 172 51
0.11381169 -0.00919794 -0.07097539 0.001717 255 172 51
0.11583224 0.00398606 -0.07114802 0.001333 255 172 51
0.11169928 0.00470155 -0.07154845 0.001687 255 172 51
0.11046072 0.00496096 -0.07156875 0.001727 255 172 51
0.10696223 0.00532220 -0.07136989 0.001457 255 172 51
0.10805736 0.00486861 -0.07166651 0.001737 255 172 51
0.10225961 -0.01353178 -0.07197721 0.001936 255 172 51
0.10272087 -0.00953879 -0.07287505 0.001900 255 172 51
0.10258551 -0.01224379 -0.07241303 0.002327 255 172 51
0.10109455 -0.01725954 -0.07093105 -0.001259 255 172 51
0.09608248 -0.01893346 -0.06991488 -0.002544 255 172 51
0.09917885 -0.01865656 -0.07053283 -0.002388 255 172 51
0.09776047 -0.01883938 -0.07015394 -0.002533 255 172 51
0.09178488 -0.01901356 -0.07091486 -0.001872 255 172 51
0.09388684 -0.01880932 -0.07009452 -0.002153 255 172 51
0.09561127 -0.01872601 -0.06968580 -0.002431 255 172 51
0.09460787 -0.01872798 -0.06973720 -0.002322 255 172 51
0.08017403 0.06571051 -0.04480939 -0.000272 255 172 51
0.07945171 0.06919007 -0.04862862 -0.000728 255 172 51
0.08039197 0.06460457 -0.04509595 -0.000247 255 172 51
0.08126742 0.05536111 -0.04419065 -0.000067 255 172 51
0.08143538 0.05610911 -0.04056564 0.000270 255 172 51
0.08131841 0.05737229 -0.03875280 0.000257 255 172 51
0.08088845 0.06023436 -0.03821151 0.000031 255 172 51
0.08141186 0.04963960 -0.04554385 0.001883 255 172 51
0.08157018 0.05266585 -0.04423715 0.000813 255 172 51
0.08157147 0.05335817 -0.04346731 0.000628 255 172 51
0.07918876 0.07373560 -0.06433287 -0.000848 255 172 51
0.07922807 0.06982873 -0.05204902 -0.001052 255 172 51
0.07871145 0.07298872 -0.05532274 -0.001418 255 172 51
0.07897869 0.07476877 -0.06633971 -0.000567 255 172 51
0.07861792 0.07589602 -0.06675728 -0.000305 255 172 51
0.07532262 0.07767996 -0.06761144 0.000219 255 172 51
0.07683091 0.07730781 -0.06779706 0.000529 255 172 51
0.07756731 0.07689858 -0.06758530 0.000394 255 172 51
0.10949206 0.00713182 -0.06920314 -0.000228 255 172 51
0.10811929 0.00616572 -0.07055833 0.000837 255 172 51
0.11078726 0.03759559 -0.06504066 -0.001197 255 172 51
0.11218268 0.03736208 -0.06507341 -0.001194 255 172 51
0.12713879 0.02467525 -0.06756791 0.000939 255 172 51
0.12650104 0.03171737 -0.06727618 0.000655 255 172 51
0.11990108 0.03508285 -0.06657927 -0.000103 255 172 51
0.12132441 0.03383210 -0.06706283 0.000320 255 172 51
0.12294954 0.03400911 -0.06696474 0.000333 255 172 51
0.11400130 0.03712489 -0.06497946 -0.001013 255 172 51
0.11511298 0.03682049 -0.06564632 -0.000644 255 172 51
0.11685224 0.03646860 -0.06610300 -0.000158 255 172 51
0.11739962 0.03629802 -0.06615864 -0.000187 255 172 51
0.12637068 0.01889253 -0.06784492 0.001238 255 172 51
0.12433854 0.01724089 -0.06794076 0.001321 255 172 51
0.11718310 0.01051023 -0.06815378 -0.000087 255 172 51
0.12168065 0.01286089 -0.06815675 0.000964 255 172 51
0.11467509 0.00934399 -0.06827985 -0.000463 255 172 51
0.11086151 0.00741015 -0.06915718 -0.000229 255 172 51
0.11329910 0.00918222 -0.06792560 -0.000777 255 172 51
0.11137040 0.03785212 -0.06012025 -0.001130 255 172 51
0.10267392 -0.00900634 -0.07288701 0.001713 255 172 51
0.10822618 -0.00756408 -0.07157929 0.001373 255 172 51
0.10771273 -0.00664283 -0.07151850 0.001128 255 172 51
0.11875653 0.00321736 -0.07101890 0.001336 255 172 51
0.12033233 -0.01046397 -0.07047243 0.001781 255 172 51
0.11736531 -0.01049407 -0.07065792 0.001975 255 172 51
0.11443239 0.00535111 -0.07111079 0.001261 255 172 51
0.11274818 0.00539271 -0.07126904 0.001413 255 172 51
0.10926792 0.00551431 -0.07129587 0.001477 255 172 51
0.10373779 -0.01484463 -0.07189459 0.000853 255 172 51
0.10341686 -0.01031775 -0.07278714 0.002216 255 172 51
0.10336895 -0.01161644 -0.07261218 0.002416 255 172 51
0.10233764 -0.01675488 -0.07132287 -0.000841 255 172 51
0.10066734 -0.01817113 -0.07083861 -0.002065 255 172 51
0.09735067 -0.01899051 -0.07014332 -0.002627 255 172 51
0.09993419 -0.01847261 -0.07069066 -0.002278 255 172 51
0.09826886 -0.01888162 -0.07033213 -0.002562 255 172 51
0.09307969 -0.01898199 -0.07050365 -0.002071 255 172 51
0.09507203 -0.01889574 -0.06982832 -0.002462 255 172 51
0.07976317 0.06801593 -0.04527515 -0.000462 255 172 51
0.08159521 0.05470563 -0.04106733 0.000529 255 172 51
0.08024596 0.06505965 -0.04235897 -0.000455 255 172 51
0.08038288 0.06381229 -0.04071812 -0.000490 255 172 51
0.08046176 0.06312954 -0.03847986 -0.000277 255 172 51
0.08141375 0.05057062 -0.04338082 0.001614 255 172 51
0.08160855 0.05229948 -0.04320539 0.001023 255 172 51
0.08151372 0.05438843 -0.04267206 0.000404 255 172 51
0.07886345 0.07163230 -0.05279360 -0.001332 255 172 51
0.07878339 0.07207935 -0.05373733 -0.001403 255 172 51
0.07837989 0.07637928 -0.06701199 -0.000065 255 172 51
0.07619376 0.07748371 -0.06790110 0.000561 255 172 51
0.10898154 0.00671423 -0.06986863 0.000280 255 172 51
0.12864785 0.02149267 -0.06766548 0.001079 255 172 51
0.12874331 0.02826421 -0.06739920 0.000777 255 172 51
0.12148505 0.03465035 -0.06670727 0.000030 255 172 51
0.11953922 0.03574640 -0.06609775 -0.000412 255 172 51
0.12454317 0.03415503 -0.06691754 0.000444 255 172 51
0.12585452 0.03317302 -0.06718680 0.000671 255 172 51
0.11630273 0.03686269 -0.06468669 -0.000873 255 172 51
0.11720463 0.03658248 -0.06567118 -0.000397 255 172 51
0.11802483 0.03630786 -0.06585293 -0.000390 255 172 51
0.12544084 0.01607984 -0.06797365 0.001319 255 172 51
0.11850625 0.01034476 -0.06842595 0.000066 255 172 51
0.11605418 0.00994454 -0.06815439 -0.000313 255 172 51
0.12073478 0.01099144 -0.06850247 0.000464 255 172 51
0.11297319 0.00756888 -0.06949335 -0.000017 255 172 51
0.11437276 0.03730676 -0.06269035 -0.001166 255 172 51
0.10548310 -0.00827877 -0.07225534 0.001499 255 172 51
0.10428311 -0.00935950 -0.07264641 0.001911 255 172 51
0.10929379 -0.00884431 -0.07149480 0.001591 255 172 51
0.11113425 -0.01025037 -0.07129260 0.001810 255 172 51
0.10696909 -0.00714236 -0.07174402 0.001219 255 172 51
0.12165119 0.00336108 -0.07086283 0.001271 255 172 51
0.12269975 -0.00926581 -0.07045064 0.001789 255 172 51
0.11631273 -0.01183875 -0.07077709 0.001814 255 172 51
0.11587605 0.00565020 -0.07095978 0.001228 255 172 51
0.11349843 0.00510783 -0.07131109 0.001439 255 172 51
0.11732945 0.00555915 -0.07092125 0.001210 255 172 51
0.11153156 0.00549214 -0.07137385 0.001553 255 172 51
0.11072275 0.00581923 -0.07116792 0.001408 255 172 51
0.10812485 0.00552771 -0.07133623 0.001514 255 172 51
0.10338736 -0.01294857 -0.07234314 0.002330 255 172 51
0.10337563 -0.00947776 -0.07288158 0.002029 255 172 51
0.10176703 -0.01738320 -0.07108097 -0.001427 255 172 51
0.10173804 -0.01771963 -0.07109343 -0.001737 255 172 51
0.09615174 -0.01911729 -0.07005805 -0.002659 255 172 51
0.09999545 -0.01861291 -0.07074552 -0.002400 255 172 51
0.09873305 -0.01892006 -0.07049363 -0.002591 255 172 51
0.09428805 -0.01914297 -0.07031135 -0.002402 255 172 51
0.07994124 0.06706890 -0.04258648 -0.000509 255 172 51
0.07886357 0.07214408 -0.05034884 -0.001305 255 172 51
0.07946137 0.06978052 -0.04594991 -0.000748 255 172 51
0.08167163 0.05504182 -0.03886164 0.000724 255 172 51
0.08121689 0.05830479 -0.03569378 0.000316 255 172 51
0.08067524 0.06176540 -0.03496158 0.000229 255 172 51
0.08099728 0.04856680 -0.04353394 0.002386 255 172 51
0.08168130 0.05317264 -0.04186255 0.000889 255 172 51
0.07866991 0.07282812 -0.05293604 -0.001461 255 172 51
0.07810947 0.07669128 -0.06711241 0.000024 255 172 51
0.07832285 0.07659630 -0.06628922 -0.000639 255 172 51
0.07638972 0.07768995 -0.06739403 0.000148 255 172 51
0.07710845 0.07749275 -0.06712700 -0.000015 255 172 51
0.11031549 0.00660084 -0.07026969 0.000680 255 172 51
0.11302492 0.03742490 -0.06416018 -0.001154 255 172 51
0.13225400 0.02477710 -0.06740902 0.000872 255 172 51
0.12985554 0.03129072 -0.06720365 0.000699 255 172 51
0.12084518 0.03534766 -0.06625397 -0.000336 255 172 51
0.12015349 0.03549905 -0.06626715 -0.000330 255 172 51
0.11880532 0.03612833 -0.06577826 -0.000495 255 172 51
0.12400179 0.03462452 -0.06670010 0.000276 255 172 51
0.12597825 0.03403506 -0.06691992 0.000521 255 172 51
0.12643363 0.03330375 -0.06715132 0.000671 255 172 51
0.12592937 0.01729538 -0.06793682 0.001323 255 172 51
0.12967582 0.01896452 -0.06776119 0.001193 255 172 51
0.12397571 0.01342575 -0.06813839 0.001155 255 172 51
0.12501025 0.01469960 -0.06802039 0.001256 255 172 51
0.11664261 0.00958245 -0.06844637 -0.000230 255 172 51
0.12319720 0.01173699 -0.06845693 0.000779 255 172 51
0.11579174 0.00958927 -0.06823160 -0.000408 255 172 51
0.11558563 0.03723408 -0.05824478 -0.001032 255 172 51
0.10621969 -0.00762189 -0.07199788 0.001360 255 172 51
0.10804778 -0.00890669 -0.07174316 0.001635 255 172 51
0.11354735 -0.01190262 -0.07110678 0.001928 255 172 51
0.12522329 0.00242051 -0.07070115 0.001231 255 172 51
0.12018962 0.00479127 -0.07097835 0.001329 255 172 51
0.11888047 -0.01241755 -0.07052802 0.001148 255 172 51
0.12246383 -0.01155508 -0.07035847 0.001507 255 172 51
0.12477779 -0.00878893 -0.07044470 0.001856 255 172 51
0.11493009 -0.01166538 -0.07093253 0.001873 255 172 51
0.11769952 -0.01217577 -0.07061921 0.001437 255 172 51
0.11527835 0.00643749 -0.07066595 0.000905 255 172 51
0.11359718 0.00562852 -0.07116916 0.001302 255 172 51
0.11856471 0.00550796 -0.07096792 0.001270 255 172 51
0.11200006 0.00625048 -0.07079303 0.001025 255 172 51
0.10444631 -0.01314120 -0.07228884 0.002125 255 172 51
0.10380773 -0.01648815 -0.07173420 -0.000704 255 172 51
0.10466610 -0.01116997 -0.07251349 0.002268 255 172 51
0.10406227 -0.01223302 -0.07250756 0.002420 255 172 51
0.10119744 -0.01820857 -0.07098007 -0.002144 255 172 51
0.09498566 -0.01911644 -0.07012625 -0.002518 255 172 51
0.07970184 0.06868348 -0.04297169 -0.000627 255 172 51
0.07914856 0.07138018 -0.04711565 -0.001048 255 172 51
0.07956707 0.06948217 -0.04421649 -0.000699 255 172 51
0.08167674 0.05541779 -0.03606988 0.000821 255 172 51
0.08183791 0.05340739 -0.03964317 0.001099 255 172 51
0.08008746 0.06588156 -0.03988104 -0.000550 255 172 51
0.08013454 0.06546061 -0.03644753 -0.000191 255 172 51
0.08160236 0.05157802 -0.04162089 0.001393 255 172 51
0.08115620 0.04948471 -0.04140031 0.002103 255 172 51
0.08165082 0.05296174 -0.04286657 0.000852 255 172 51
0.07874580 0.07215169 -0.05315839 -0.001432 255 172 51
0.07774287 0.07716040 -0.06670535 -0.000338 255 172 51
0.13139285 0.02058775 -0.06761812 0.001078 255 172 51
0.13153812 0.02881924 -0.06730313 0.000750 255 172 51
0.12844950 0.03292342 -0.06710774 0.000648 255 172 51
0.12200819 0.03529245 -0.06616438 -0.000347 255 172 51
0.12298116 0.03486309 -0.06652837 0.000040 255 172 51
0.12030748 0.03572718 -0.06594291 -0.000497 255 172 51
0.11976728 0.03611347 -0.06532973 -0.000780 255 172 51
0.12517355 0.03478700 -0.06650469 0.000312 255 172 51
0.12731157 0.03362650 -0.06699637 0.000581 255 172 51
0.11836357 0.03649338 -0.06493802 -0.000780 255 172 51
0.12781344 0.01699945 -0.06789367 0.001267 255 172 51
0.12693444 0.01514233 -0.06796344 0.001227 255 172 51
0.11812421 0.00921930 -0.06894055 0.000066 255 172 51
0.11958718 0.00986911 -0.06878985 0.000203 255 172 51
0.12251383 0.01024488 -0.06896504 0.000581 255 172 51
0.11614986 0.00828137 -0.06934965 0.000048 255 172 51
0.11880672 0.03664299 -0.06247833 -0.001119 255 172 51
0.10581656 -0.00969893 -0.07228687 0.001912 255 172 51
0.10682343 -0.00837146 -0.07197330 0.001571 255 172 51
0.10874471 -0.01037538 -0.07165672 0.001822 255 172 51
0.11177355 -0.01259400 -0.07132753 0.001877 255 172 51
0.12250748 0.00562950 -0.07064975 0.001120 255 172 51
0.12573683 -0.00230316 -0.07056399 0.001468 255 172 51
0.12122057 0.00545249 -0.07083274 0.001226 255 172 51
0.11932886 0.00530729 -0.07099712 0.001308 255 172 51
0.11996293 -0.01278746 -0.07043225 0.000786 255 172 51
0.12392981 -0.01130800 -0.07040382 0.001724 255 172 51
0.12196728 -0.01308221 -0.07033936 0.000411 255 172 51
0.12682472 -0.00602883 -0.07037610 0.001697 255 172 51
0.11561099 -0.01353347 -0.07101619 0.000741 255 172 51
0.11774442 -0.01352706 -0.07070915 0.000489 255 172 51
0.11646126 0.00643449 -0.07069348 0.001011 255 172 51
0.11370058 0.00632572 -0.07070633 0.000889 255 172 51
0.11831859 0.00644334 -0.07074944 0.001129 255 172 51
0.10571533 -0.01387306 -0.07204708 0.001436 255 172 51
0.10514919 -0.01574669 -0.07196220 -0.000112 255 172 51
0.10275093 -0.01726805 -0.07140918 -0.001372 255 172 51
0.10192989 -0.01790205 -0.07115351 -0.001930 255 172 51
0.09468400 -0.01926585 -0.07034934 -0.002539 255 172 51
0.07970835 0.06864335 -0.04068820 -0.000686 255 172 51
0.07934103 0.07087468 -0.04467386 -0.000875 255 172 51
0.08192623 0.05332597 -0.03744747 0.001306 255 172 51
0.08150204 0.05659738 -0.03372014 0.000571 255 172 51
0.08113772 0.05881771 -0.03268202 0.000328 255 172 51
0.08056249 0.04749875 -0.04214104 0.002754 255 172 51
0.13399217 0.02066892 -0.06747457 0.000986 255 172 51
0.13374050 0.02845348 -0.06724076 0.000740 255 172 51
0.12967744 0.03311493 -0.06695116 0.000540 255 172 51
0.13274388 0.03098440 -0.06711289 0.000657 255 172 51
0.12116188 0.03578282 -0.06554045 -0.000780 255 172 51
0.12413527 0.03515365 -0.06624655 0.000047 255 172 51
0.12680800 0.03491019 -0.06618921 0.000075 255 172 51
0.13119097 0.01920258 -0.06770147 0.001160 255 172 51
0.13111891 0.01717476 -0.06777900 0.001169 255 172 51
0.12516519 0.01242735 -0.06827070 0.000943 255 172 51
0.12599468 0.01372860 -0.06805523 0.001129 255 172 51
0.12081951 0.00983279 -0.06897704 0.000386 255 172 51
0.12366822 0.01086535 -0.06876460 0.000684 255 172 51
0.11488120 0.00720798 -0.07009688 0.000335 255 172 51
0.12001112 0.03656525 -0.05819117 -0.001065 255 172 51
0.11014219 -0.01169517 -0.07145943 0.001948 255 172 51
0.10719684 -0.00971239 -0.07196470 0.001801 255 172 51
0.11348896 -0.01401673 -0.07131893 0.000589 255 172 51
0.12179312 0.00491585 -0.07083263 0.001238 255 172 51
0.12449853 0.00586087 -0.07059244 0.001167 255 172 51
0.12887052 -0.00177430 -0.07042205 0.001451 255 172 51
0.12007372 0.00599660 -0.07086574 0.001241 255 172 51
0.12077338 -0.01335992 -0.07038505 0.000266 255 172 51
0.11957280 -0.01415606 -0.07059549 -0.000255 255 172 51
0.12329061 -0.01284889 -0.07035945 0.000575 255 172 51
0.12569724 -0.01164793 -0.07047811 0.001512 255 172 51
0.12749651 -0.01017414 -0.07032228 0.001922 255 172 51
0.11629274 0.00720956 -0.07022487 0.000656 255 172 51
0.11749221 0.00686969 -0.07050555 0.000934 255 172 51
0.11917281 0.00633929 -0.07081222 0.001207 255 172 51
0.10459858 -0.01226999 -0.07244360 0.002329 255 172 51
0.10532853 -0.01498533 -0.07198980 0.000600 255 172 51
0.10535368 -0.01246856 -0.07225928 0.002150 255 172 51
0.10474621 -0.01638649 -0.07191140 -0.000688 255 172 51
0.10384245 -0.01686924 -0.07173915 -0.001087 255 172 51
0.07950684 0.07007565 -0.04264814 -0.000761 255 172 51
0.08196489 0.05329622 -0.03523646 0.001382 255 172 51
0.08179549 0.05242539 -0.04039051 0.001286 255 172 51
0.08192553 0.05249440 -0.03871742 0.001459 255 172 51
0.07981933 0.06774400 -0.03816330 -0.000587 255 172 51
0.08181786 0.05437291 -0.03315961 0.001084 255 172 51
0.08169430 0.05124421 -0.03944694 0.001685 255 172 51
0.08056436 0.04755245 -0.04057253 0.002625 255 172 51
0.13800043 0.02290593 -0.06716274 0.000758 255 172 51
0.13238513 0.01883147 -0.06765048 0.001119 255 172 51
0.13664007 0.02744105 -0.06711335 0.000690 255 172 51
0.12887686 0.03334110 -0.06703386 0.000659 255 172 51
0.13122469 0.03244010 -0.06698886 0.000566 255 172 51
0.12863366 0.03366870 -0.06690087 0.000571 255 172 51
0.12235069 0.03566401 -0.06561161 -0.000670 255 172 51
0.12314043 0.03540761 -0.06599094 -0.000262 255 172 51
0.11942502 0.03640530 -0.06432973 -0.001003 255 172 51
0.12530479 0.03543389 -0.06560931 -0.000292 255 172 51
0.12707555 0.03435583 -0.06671967 0.000462 255 172 51
0.13113786 0.01853723 -0.06773508 0.001173 255 172 51
0.12946884 0.01534292 -0.06789014 0.001147 255 172 51
0.12470204 0.01126129 -0.06862115 0.000746 255 172 51
0.12814440 0.01388503 -0.06797178 0.001017 255 172 51
0.11970648 0.00885173 -0.06938935 0.000343 255 172 51
0.11811122 0.00832120 -0.06956019 0.000330 255 172 51
0.12152059 0.00898363 -0.06948488 0.000592 255 172 51
0.12436581 0.01013329 -0.06912492 0.000733 255 172 51
0.12233953 0.03623070 -0.06095496 -0.001072 255 172 51
0.10669088 -0.01143471 -0.07205185 0.001983 255 172 51
0.10858516 -0.01230248 -0.07170347 0.001940 255 172 51
0.11019935 -0.01328683 -0.07153610 0.001577 255 172 51
0.11170961 -0.01444625 -0.07151856 0.000429 255 172 51
0.12367314 0.00738026 -0.07027631 0.000990 255 172 51
0.12597844 0.00604737 -0.07069397 0.001257 255 172 51
0.12872644 0.00325209 -0.07070694 0.001107 255 172 51
0.12085988 0.00670423 -0.07054577 0.001011 255 172 51
0.12455425 -0.01292692 -0.07049043 0.000496 255 172 51
0.12152636 -0.01401019 -0.07036947 -0.000345 255 172 51
0.12298058 -0.01377497 -0.07040409 -0.000209 255 172 51
0.12908459 -0.00851507 -0.07006898 0.001662 255 172 51
0.11722843 -0.01470693 -0.07090612 -0.000539 255 172 51
0.11906412 0.00739725 -0.07026298 0.000767 255 172 51
0.10673137 -0.01507872 -0.07199784 0.000433 255 172 51
0.10619117 -0.01275399 -0.07206488 0.001908 255 172 51
0.10638072 -0.01583260 -0.07206170 -0.000418 255 172 51
0.08199720 0.05180201 -0.03608058 0.001575 255 172 51
0.08187990 0.05245104 -0.03950436 0.001400 255 172 51
0.08192191 0.05185041 -0.03776804 0.001618 255 172 51
0.08150372 0.05633577 -0.03130291 0.000526 255 172 51
0.08112089 0.04899443 -0.03908177 0.002134 255 172 51
0.07971463 0.04484487 -0.04180726 0.003657 255 172 51
0.13586383 0.01864061 -0.06742845 0.000969 255 172 51
0.13397160 0.01876035 -0.06755228 0.001054 255 172 51
0.13515626 0.03006805 -0.06709047 0.000679 255 172 51
0.13066393 0.03311371 -0.06685396 0.000458 255 172 51
0.12813172 0.03439286 -0.06650630 0.000281 255 172 51
0.13234398 0.03231315 -0.06694378 0.000580 255 172 51
0.12213310 0.03595637 -0.06479601 -0.000886 255 172 51
0.12057442 0.03621238 -0.06435362 -0.001014 255 172 51
0.12403799 0.03554833 -0.06571825 -0.000314 255 172 51
0.12658469 0.03542399 -0.06534448 -0.000431 255 172 51
0.13186195 0.01524276 -0.06782299 0.001068 255 172 51
0.12703015 0.01273354 -0.06813102 0.000970 255 172 51
0.12632021 0.01162000 -0.06845175 0.000762 255 172 51
0.11743765 0.00766793 -0.06998095 0.000586 255 172 51
0.12333928 0.00890227 -0.06966754 0.000752 255 172 51
0.12359376 0.03606836 -0.05725148 -0.001061 255 172 51
0.12188032 0.03619453 -0.06335220 -0.001031 255 172 51
0.11479047 -0.01489119 -0.07136925 -0.000426 255 172 51
0.11285581 -0.01507972 -0.07153021 -0.000390 255 172 51
0.12152480 0.00602918 -0.07072259 0.001186 255 172 51
0.12507844 0.00736345 -0.07040981 0.001097 255 172 51
0.12209237 0.00768497 -0.07010742 0.000804 255 172 51
0.12703303 0.00485460 -0.07077949 0.001120 255 172 51
0.13136485 0.00132144 -0.07045258 0.001312 255 172 51
0.12966751 -0.00610409 -0.07007730 0.001630 255 172 51
0.11978246 0.00670357 -0.07067043 0.001095 255 172 51
0.12102943 -0.01452420 -0.07055715 -0.000737 255 172 51
0.11828561 -0.01501414 -0.07082476 -0.000962 255 172 51
0.12378812 -0.01364830 -0.07046170 -0.000117 255 172 51
0.12225755 -0.01437112 -0.07053309 -0.000670 255 172 51
0.12601660 -0.01355618 -0.07072341 -0.000243 255 172 51
0.12727349 -0.01237224 -0.07051961 0.000847 255 172 51
0.12965617 -0.01055407 -0.07004380 0.001436 255 172 51
0.11618337 -0.01501555 -0.07118466 -0.000738 255 172 51
0.10699935 -0.01411165 -0.07192849 0.001111 255 172 51
0.10710299 -0.01312192 -0.07191420 0.001694 255 172 51
0.08207881 0.05164057 -0.03346241 0.001388 255 172 51
0.08189882 0.05303382 -0.02939197 0.000878 255 172 51
0.08169118 0.05023374 -0.03725073 0.001746 255 172 51
0.08035928 0.04666285 -0.03849748 0.002599 255 172 51
0.14032693 0.02662958 -0.06690866 0.000578 255 172 51
0.13865632 0.01914808 -0.06719533 0.000811 255 172 51
0.13362683 0.01722680 -0.06764438 0.001103 255 172 51
0.13731240 0.03017282 -0.06692299 0.000552 255 172 51
0.13442671 0.03167907 -0.06694400 0.000606 255 172 51
0.12950991 0.03397724 -0.06650943 0.000238 255 172 51
0.13042304 0.03354753 -0.06662248 0.000256 255 172 51
0.13139755 0.03322890 -0.06664610 0.000302 255 172 51
0.13186653 0.03274444 -0.06686556 0.000499 255 172 51
0.13331516 0.03233982 -0.06682172 0.000494 255 172 51
0.12324139 0.03575253 -0.06531049 -0.000640 255 172 51
0.12425071 0.03574624 -0.06509134 -0.000603 255 172 51
0.12766722 0.03526022 -0.06530572 -0.000578 255 172 51
0.12600864 0.03561443 -0.06491922 -0.000640 255 172 51
0.12818107 0.03492153 -0.06591788 -0.000133 255 172 51
0.13085499 0.01345064 -0.06793639 0.000799 255 172 51
0.13267088 0.01619199 -0.06775363 0.001131 255 172 51
0.12573916 0.01068286 -0.06886063 0.000695 255 172 51
0.12875134 0.01281954 -0.06804246 0.000763 255 172 51
0.12065148 0.00799835 -0.06995738 0.000649 255 172 51
0.12476096 0.00913590 -0.06967884 0.000867 255 172 51
0.12575364 0.03578648 -0.06132992 -0.001025 255 172 51
0.12373414 0.03601894 -0.06288302 -0.000990 255 172 51
0.10847434 -0.01416412 -0.07180185 0.001015 255 172 51
0.11020593 -0.01459075 -0.07167197 0.000472 255 172 51
0.11372072 -0.01517074 -0.07151160 -0.000557 255 172 51
0.11216114 -0.01550041 -0.07166248 -0.000746 255 172 51
0.12449290 0.00831771 -0.07004789 0.000983 255 172 51
0.12623529 0.00758432 -0.07048888 0.001192 255 172 51
0.12716697 0.00644275 -0.07076875 0.001225 255 172 51
0.12811415 0.00560797 -0.07076503 0.001061 255 172 51
0.13083208 0.00419219 -0.07071883 0.001195 255 172 51
0.13137800 -0.00153129 -0.07028151 0.001544 255 172 51
0.13179845 -0.00454639 -0.06990291 0.001610 255 172 51
0.12028603 -0.01520192 -0.07088028 -0.001394 255 172 51
